ply
format ascii 1.0
element vertex 887
property float x
property float y
property float z
property float nx
property float ny
property float nz
end_header
-1.65385 2.45687 1.68043 -0.191117 0.887047 0.420265
-1.72606 2.45797 1.65158 -0.218681 0.822652 0.524807
-1.86615 2.43597 1.62322 -0.392389 0.418282 0.819189
-1.83521 2.45653 1.61182 -0.299413 0.670632 0.678678
-1.85341 2.45796 1.60336 -0.305744 0.660425 0.685828
-1.83466 2.46475 1.60286 -0.260052 0.75371 0.603568
-0.693302 2.02951 1.66021 0.749593 0.498039 0.435967
-0.679545 1.98458 1.66848 0.69138 0.201663 0.693776
-0.736412 2.11396 1.66342 0.67429 0.738438 -0.00652937
-0.595015 1.94856 1.59738 0.75377 0.477995 0.450945
-0.58524 1.97254 1.57528 0.735223 0.660601 0.151832
-1.64425 2.40578 1.75019 -0.4501 0.378901 0.808607
-1.48797 2.44233 1.79387 -0.044819 0.825608 0.562461
-1.53138 2.41799 1.80526 -0.204244 0.577712 0.790274
-1.56256 2.44229 1.74504 -0.218412 0.797821 0.561941
-1.56712 2.47768 1.69319 0.0311769 0.995754 0.0866115
-0.845204 2.10581 1.81809 0.491699 0.130615 0.860913
-0.833118 2.0956 1.80515 0.520897 0.11232 0.846197
-0.866456 2.16498 1.81391 0.578139 0.462906 0.671917
-0.804761 2.16489 1.72127 0.67695 0.724041 0.132296
-1.48192 2.38283 1.88576 -0.1114 0.242438 0.96375
-1.36384 2.35622 1.85246 0.502119 0.0640445 0.862424
-1.44156 2.42229 1.82499 0.0991695 0.702328 0.704912
-1.38575 2.45039 1.76821 0.358354 0.895346 0.264457
-0.939077 2.18411 1.85052 0.174439 0.42409 0.888661
-0.960638 2.20002 1.84145 0.0441145 0.521931 0.851846
-0.934996 2.22428 1.80611 0.324187 0.751738 0.574276
-1.25436 2.32499 1.63402 0.826092 0.12787 0.548836
-1.26375 2.31514 1.66773 0.784602 -0.0345534 0.619036
-1.32417 2.39125 1.77919 0.6867 0.498899 0.528718
-1.27449 2.40103 1.6377 0.543582 0.830256 0.123264
-1.10214 2.24413 1.68184 -0.576616 0.526327 0.624896
-1.08197 2.24774 1.70667 -0.471622 0.616032 0.630933
-1.06712 2.25002 1.72593 -0.380418 0.677893 0.629081
-0.972435 2.27759 1.76173 0.158624 0.956459 0.244998
-1.03082 2.23024 1.83109 -0.389832 0.560797 0.730437
-1.18917 2.27219 1.55619 0.16336 0.342261 0.925295
-1.22859 2.34512 1.57212 0.742038 0.608712 0.280801
-1.17257 2.30493 1.51845 0.33051 0.801292 0.498692
-1.15378 2.32137 1.50789 0.253503 0.963773 0.0829343
-1.36439 2.39072 1.62517 0.25498 0.964241 -0.0722754
-1.31369 2.40965 1.64881 0.412933 0.910668 0.013044
-1.26489 2.40198 1.58911 0.449712 0.89307 -0.0135949
-0.996199 2.21449 1.58248 0.597972 0.787389 -0.149827
-1.03177 2.24495 1.55393 0.56654 0.806681 -0.168218
-1.00274 2.29622 1.66835 0.286406 0.955526 0.0703019
-1.4588 2.42559 1.67589 0.185623 0.982188 0.029183
-1.37695 2.43371 1.71472 0.360861 0.927325 0.0992335
-1.39031 2.43014 1.70427 0.299908 0.950697 0.078937
-0.890976 2.20654 1.71663 0.615762 0.781331 0.101778
-0.935154 2.22356 1.69066 0.522019 0.851644 0.0469014
-0.892573 2.23373 1.75529 0.560652 0.80893 0.17692
-1.49051 2.45968 1.71272 0.13956 0.980624 0.137477
-1.53458 2.42709 1.63225 0.192018 0.980654 0.0380463
-1.47169 2.45378 1.71803 0.154641 0.97866 0.135319
-0.800331 2.16578 1.70618 0.64949 0.758899 0.0472866
-0.859766 2.1874 1.71629 0.600019 0.788949 0.132428
-0.859472 2.13269 1.62896 0.553153 0.832969 -0.0135706
-1.75292 2.47705 1.55482 0.0986565 0.984245 -0.146727
-1.73268 2.44417 1.54137 0.129699 0.960777 -0.245123
-1.66646 2.45291 1.58602 0.126244 0.979412 -0.157528
-1.66238 2.4241 1.55035 0.174853 0.976115 -0.128944
-0.696586 2.04921 1.60065 0.647677 0.752018 -0.122408
-0.650135 1.99581 1.55476 0.640427 0.750191 -0.164521
-0.775484 2.05842 1.57293 0.586353 0.807197 -0.0679892
-0.770511 2.08361 1.60742 0.61286 0.787857 -0.060702
-1.84456 2.46548 1.47516 -0.00491326 0.987971 -0.154562
-1.82636 2.5045 1.52088 0.0510111 0.996373 -0.0681149
-0.551933 1.90766 1.51327 0.768977 0.625566 -0.131691
-0.593746 1.96808 1.52982 0.671424 0.733511 -0.105597
-1.86491 2.42812 1.3848 -0.0857743 0.959549 -0.268159
-1.82955 2.42822 1.39795 -0.0201879 0.972099 -0.233701
-0.623257 1.90408 1.38744 0.74146 0.625429 -0.243056
-0.560984 1.88841 1.47053 0.783818 0.592268 -0.186676
-0.594748 1.88429 1.40319 0.768391 0.587419 -0.253997
-1.71519 2.39788 1.21572 -0.0856755 0.923052 -0.375013
-1.78944 2.41591 1.28885 -0.0855918 0.957738 -0.274613
-0.689737 1.93739 1.22114 0.753232 0.538973 -0.377028
-0.67268 1.92692 1.26075 0.762414 0.540249 -0.356168
-0.662676 1.92504 1.28645 0.763978 0.565072 -0.3115
-1.66394 2.37877 1.14141 -0.0600996 0.90189 -0.427764
-1.64474 2.38812 1.17751 -0.029503 0.927093 -0.373669
-0.794237 2.00554 1.12744 0.690358 0.557408 -0.461196
-0.816725 2.04555 1.17052 0.672093 0.649116 -0.356286
-1.49578 2.3575 1.09536 0.109285 0.895687 -0.431048
-1.44025 2.36456 1.06406 0.140068 0.914547 -0.379454
-1.36019 2.35808 1.13144 0.378523 0.891922 -0.247377
-1.47373 2.35993 1.08545 0.12614 0.903417 -0.409788
-1.42846 2.35168 1.19803 0.380971 0.884336 -0.269833
-0.938778 2.13138 1.13918 0.485697 0.793984 -0.365633
-1.00029 2.18816 1.19741 0.303517 0.924775 -0.229498
-0.9993 2.18196 1.21908 0.275497 0.934751 -0.224368
-0.988492 2.20696 1.05914 0.508143 0.810449 -0.291483
-1.00669 2.19326 1.2069 0.27958 0.935971 -0.213992
-1.34711 2.33543 1.24971 0.58886 0.787765 -0.180747
-1.33478 2.3277 1.2039 0.476756 0.86232 -0.170612
-1.21921 2.27063 1.16807 0.399039 0.916487 -0.0286341
-1.23958 2.31759 1.10161 0.362256 0.926747 -0.0995496
-1.27625 2.29412 1.19499 0.445373 0.890485 -0.0931658
-1.05821 2.21029 1.25152 0.163768 0.975366 -0.147787
-1.029 2.21768 1.16282 0.329541 0.924004 -0.193956
-1.06332 2.23924 1.13148 0.374297 0.913972 -0.156706
-1.05253 2.23181 1.14284 0.35905 0.918024 -0.16827
-1.21981 2.35474 1.51612 0.347067 0.935156 -0.070908
-1.26067 2.33837 1.46559 0.341101 0.927971 -0.150067
-1.05255 2.29953 1.55892 0.391459 0.91784 -0.0657906
-1.06028 2.25146 1.51848 0.546778 0.820373 -0.167401
-1.21545 2.31488 1.41014 0.380643 0.909487 -0.167165
-1.1923 2.29561 1.36686 0.384143 0.900498 -0.203809
-1.23861 2.30637 1.34344 0.454576 0.864878 -0.212948
-1.14838 2.29829 1.42536 0.396941 0.908588 -0.130019
-1.07461 2.23921 1.42253 0.396197 0.895858 -0.201161
-1.29 2.30793 1.24822 0.572405 0.811861 -0.115042
-1.32963 2.33305 1.28045 0.633979 0.75458 -0.169353
-1.24899 2.29448 1.28152 0.466718 0.875757 -0.123389
-1.06702 2.22061 1.29618 0.19402 0.967069 -0.164721
-1.08885 2.22109 1.24687 0.196299 0.973821 -0.114626
-1.10873 2.243 1.31982 0.294062 0.939489 -0.175752
-1.22259 2.19346 0.215433 0.322473 0.731181 -0.601153
-1.30712 2.22821 0.223522 0.257298 0.748262 -0.611475
-1.16742 2.18333 0.230045 0.319226 0.771795 -0.549934
-1.28891 2.2588 0.269124 0.323242 0.859545 -0.39585
-1.3731 2.23725 0.219543 0.114738 0.723464 -0.680761
-1.07189 2.14433 0.26225 0.487381 0.722554 -0.490281
-1.33313 2.27528 0.296163 0.207905 0.902315 -0.377629
-1.36788 2.29513 0.364045 0.0395064 0.978261 -0.203579
-1.3606 2.28277 0.337286 0.0890634 0.939209 -0.331594
-1.07583 2.18177 0.349641 0.529204 0.797593 -0.289462
-1.00198 2.0766 0.251897 0.685931 0.524838 -0.504027
-1.02498 2.13435 0.34139 0.694456 0.668395 -0.266417
-1.31289 2.30576 0.625233 0.0844961 0.996131 0.0241359
-1.33154 2.30762 0.605173 0.0252573 0.999195 0.0311819
-1.41773 2.30948 0.459745 -0.163863 0.986236 -0.0220925
-1.38955 2.31208 0.578878 -0.152599 0.987319 0.0437614
-1.40745 2.3109 0.515453 -0.167399 0.985846 0.00925651
-1.03114 2.17062 0.603475 0.768193 0.63776 0.056051
-1.09007 2.22066 0.668362 0.589215 0.807772 0.0181778
-1.08759 2.21871 0.674174 0.600206 0.79951 0.0231599
-0.99367 2.13122 0.492052 0.825941 0.563756 0.000943839
-0.988651 2.1244 0.443803 0.822198 0.568582 -0.0265718
-1.00939 2.14741 0.531055 0.80063 0.59885 0.0192529
-1.31633 2.29821 0.407387 0.164408 0.97281 -0.16313
-1.31218 2.2999 0.424681 0.172057 0.977769 -0.119854
-1.0273 2.15542 0.410714 0.714581 0.689474 -0.118316
-1.06468 2.19358 0.440463 0.602712 0.795296 -0.0651339
-1.25929 2.29491 0.817035 -0.0821245 0.922462 -0.377253
-1.15396 2.25223 0.765654 0.564142 0.785849 -0.253348
-1.12256 2.24154 0.720014 0.565297 0.81985 -0.0910255
-1.19599 2.27456 0.68398 0.371075 0.928594 -0.00415409
-1.23391 2.28784 0.641291 0.307957 0.951322 -0.0122441
-1.23113 2.27398 0.465784 0.325221 0.944672 -0.0427291
-1.23652 2.28087 0.528061 0.314594 0.948537 -0.0361781
-1.10842 2.22916 0.573566 0.514837 0.85688 -0.0264509
-1.11484 2.22739 0.509989 0.501608 0.864092 -0.0416508
-1.17607 2.26209 0.629817 0.406354 0.913618 -0.0133857
-1.13148 2.23481 0.515021 0.477056 0.878066 -0.0376608
-1.23352 2.27381 0.423262 0.316057 0.933913 -0.167073
-1.14396 2.23538 0.420853 0.455902 0.871492 -0.180707
-1.08264 2.23581 0.877923 0.817923 0.260579 -0.512933
-1.06749 2.24272 0.944372 0.93156 0.355756 0.0750593
-1.15067 2.26596 0.997517 0.296791 0.515578 0.8038
-1.196 2.289 0.980856 0.323621 0.387643 0.863135
-1.18131 2.29162 0.81366 0.211165 0.59044 -0.778967
-1.22264 2.33543 0.861321 0.0572637 0.719366 -0.692266
-1.1412 2.29855 0.842446 0.349414 0.599517 -0.720062
-1.25153 2.33482 1.00017 -0.268826 0.322654 0.907539
-1.28013 2.35996 0.933114 -0.710834 0.69743 0.0911379
-1.0867 2.28541 0.883586 0.584513 0.5806 -0.566787
-1.09266 2.31045 0.935419 0.634962 0.76293 0.121496
-1.17624 2.34196 0.908194 0.331151 0.932568 -0.143718
-1.1205 2.3109 0.894888 0.485165 0.8037 -0.3445
-1.24764 2.32129 1.00631 0.29448 0.934037 0.202131
-1.24763 2.34005 1.02704 0.349252 0.936752 0.0227586
-1.23383 2.31449 1.08079 0.362701 0.93172 -0.0185773
-1.12746 2.25399 0.998688 0.45431 0.81857 0.351489
-1.13079 2.26455 1.07163 0.419515 0.905144 0.0687072
-1.11463 2.27065 1.01297 0.419495 0.887172 0.192226
-1.31068 2.3168 0.951309 -0.083546 0.992246 0.0920203
-1.0706 2.21202 0.958792 0.741917 0.649455 0.166635
-1.33681 2.30498 0.835538 -0.303004 0.952119 -0.0407281
-1.07701 2.21506 0.874136 0.87193 0.36875 -0.32212
-1.31289 2.30459 0.758643 -0.126362 0.977465 -0.169099
-1.31631 2.30711 0.692614 0.0300352 0.999007 0.0329106
-1.35985 2.3068 0.784303 -0.265792 0.962171 0.0598477
-1.06415 2.19834 0.715256 0.739692 0.672498 -0.0245634
-1.04051 2.17686 0.749006 0.854692 0.514864 -0.0664603
-1.52208 2.2252 0.724149 -0.80907 0.540216 0.231455
-1.44755 2.25927 0.774563 -0.608085 0.766624 0.206205
-1.39145 2.29369 0.793634 -0.38555 0.910056 0.15215
-1.3918 2.30338 0.747289 -0.316657 0.939113 0.133401
-0.971648 1.98185 0.708524 0.93991 -0.248061 0.234598
-0.998489 2.0605 0.757195 0.976644 0.0521635 0.208438
-0.979259 2.01658 0.719481 0.969099 -0.116245 0.217562
-1.02663 2.15219 0.797931 0.897574 0.415298 0.147944
-1.44636 2.22601 0.848777 -0.723599 0.651494 0.227948
-1.35955 2.29507 0.871041 -0.415766 0.907302 0.062783
-1.03917 2.03155 0.865934 0.955022 -0.148814 0.256492
-1.03698 2.12852 0.846866 0.954115 0.258669 0.150849
-1.29142 2.35807 1.01558 0.217758 0.953791 -0.207037
-1.3529 2.29149 0.926392 -0.372345 0.922343 -0.103166
-1.41287 2.2356 0.894621 -0.678066 0.732525 0.0602719
-1.06302 2.0801 0.937715 0.960918 0.0307714 -0.275116
-1.06417 2.07725 0.948512 0.946537 0.0310026 -0.321101
-1.04987 2.09137 0.894732 0.994748 0.0546148 0.0865603
-1.10874 2.21391 0.395985 0.344264 0.786527 -0.512697
-1.26341 2.24716 0.276026 0.727511 0.682098 0.0739584
-1.22596 2.18813 0.267605 0.384977 0.717896 0.580016
-1.25031 2.22542 0.267017 0.638895 0.550552 0.537314
-1.28385 2.26549 0.34134 0.826373 0.509345 -0.240158
-1.11903 2.1737 0.31782 -0.312966 0.948574 0.0475301
-1.28971 2.22073 0.37804 0.629875 0.306209 -0.713788
-1.14715 2.18653 0.376244 0.116023 0.719141 -0.685109
-1.26036 2.18934 0.322585 0.682349 0.715627 -0.149254
-1.18989 2.15313 0.305474 0.0922514 0.988694 0.118207
-1.33712 2.35308 1.29807 0.480563 0.869898 -0.11107
-1.30132 2.3376 1.41138 0.378623 0.906178 -0.18838
-1.01891 2.23125 1.3926 0.55074 0.827627 -0.108254
-1.35831 2.37869 1.478 0.211246 0.972836 -0.0946799
-0.996577 2.22122 1.51162 0.566691 0.815471 -0.117763
-1.41303 2.35179 1.20936 0.422091 0.873742 -0.241692
-1.4957 2.40015 1.20244 0.257563 0.944346 -0.204626
-0.857849 2.11769 1.19587 0.548226 0.806974 -0.21964
-1.59163 2.38851 1.17105 0.0455695 0.951298 -0.304885
-0.802118 2.03913 1.1826 0.6807 0.651842 -0.334289
-0.834579 2.07725 1.17578 0.636017 0.727396 -0.257639
-1.66837 2.42594 1.24948 0.0885698 0.990591 -0.104333
-0.729726 1.98227 1.23737 0.726653 0.605947 -0.323734
-1.76154 2.4403 1.39733 0.15704 0.98259 -0.0992727
-0.659532 1.94971 1.36252 0.688256 0.708747 -0.154858
-1.78572 2.4333 1.45446 0.0660796 0.98222 -0.175721
-0.68042 1.97876 1.49452 0.640278 0.760287 -0.109575
-1.71054 2.43308 1.51687 0.168653 0.957634 -0.233436
-1.59645 2.45575 1.52144 0.207979 0.97219 -0.107666
-0.78642 2.07049 1.55782 0.568709 0.81999 -0.0647002
-1.54616 2.41586 1.5607 0.220434 0.974743 0.0358459
-0.804289 2.10398 1.55413 0.556681 0.829444 -0.0461465
-0.931735 2.1809 1.57117 0.570896 0.820955 -0.0105563
-1.35421 2.36438 1.55798 0.136006 0.974445 -0.178773
-0.938108 2.18647 1.56394 0.571969 0.820206 -0.0106821
-1.47903 2.40714 1.55127 0.197066 0.980042 -0.0261304
-0.839349 2.13192 1.53709 0.42105 0.824129 -0.37885
-0.796411 2.11708 1.52981 0.400175 0.813029 -0.422899
-0.700131 1.99275 1.45993 0.433585 0.851879 -0.293781
-0.69384 1.98073 1.40285 0.311203 0.943862 -0.110802
-0.734616 2.02489 1.277 0.579058 0.815186 -0.0127658
-0.787917 2.0723 1.22634 0.598051 0.800267 -0.0436785
-1.42167 2.37742 1.24987 -0.0475615 0.843353 0.535251
-1.37786 2.35982 1.28744 -0.175795 0.929063 0.32548
-1.00565 2.22054 1.4378 0.711456 0.689046 -0.138008
-1.00642 2.20234 1.39997 0.932332 0.348476 -0.096546
-1.26467 2.22838 1.57875 0.317424 0.0546228 0.946709
-1.30489 2.18942 1.57954 0.389109 0.00428538 0.921182
-1.30704 2.18093 1.57745 0.391715 0.0233911 0.919789
-1.14537 2.15906 1.59885 -0.459035 0.322412 0.827851
-1.19687 2.19163 1.56227 0.0103311 0.320581 0.947165
-1.29899 2.28176 1.68829 0.676022 -0.355247 0.645596
-1.33595 2.26132 1.71355 0.530353 -0.570304 0.627279
-1.3796 2.26919 1.80228 0.395407 -0.610626 0.686141
-1.29647 2.24111 1.61174 0.648055 -0.164808 0.743548
-1.31429 2.26822 1.68948 0.615475 -0.465057 0.636327
-1.33318 2.22931 1.65227 0.541875 -0.352551 0.762941
-1.07314 2.1999 1.77316 -0.627936 0.294286 0.72048
-1.11592 2.23832 1.66337 -0.644254 0.454828 0.614872
-1.04941 2.21836 1.83528 -0.498462 0.413245 0.762079
-1.08617 2.13066 1.73731 -0.781754 -0.160247 0.602646
-1.11825 2.2107 1.65661 -0.71802 0.321603 0.617267
-1.39483 2.33019 1.84831 0.381896 -0.161411 0.910001
-1.49539 2.37035 1.88013 -0.174057 0.154828 0.972488
-1.39788 2.34616 1.8583 0.346142 -0.0265936 0.937805
-1.51019 2.25867 1.81488 -0.213812 -0.699976 0.681409
-0.974744 2.1304 1.85488 -0.231875 -0.0117788 0.972674
-0.975945 2.15434 1.86302 -0.187245 0.144881 0.97157
-0.991173 2.0804 1.82933 -0.431111 -0.37776 0.819415
-1.0456 2.0904 1.81026 -0.683767 -0.373848 0.626658
-1.58373 2.36799 1.80309 -0.29798 0.209047 0.931401
-1.65263 2.33015 1.73898 -0.368585 0.0639353 0.927393
-1.62547 2.39166 1.76656 -0.403924 0.319479 0.857192
-1.52416 2.34888 1.85561 -0.245963 0.0249038 0.968959
-1.60815 2.27343 1.77536 -0.410363 -0.450872 0.792664
-0.830065 1.93358 1.71772 0.196443 -0.304907 0.931902
-0.852833 2.02761 1.7943 0.281603 -0.123049 0.951609
-0.832872 1.93233 1.71845 0.182302 -0.318436 0.93025
-0.915548 2.01321 1.81924 -0.0391068 -0.545563 0.837157
-1.82451 2.37369 1.63988 -0.445943 0.217131 0.868326
-1.88356 2.35368 1.60502 -0.426891 0.123067 0.89589
-1.74185 2.40734 1.68942 -0.46162 0.361377 0.810131
-1.7479 2.31213 1.67011 -0.425991 -0.00742495 0.904697
-1.73979 2.36368 1.68395 -0.470441 0.208179 0.857524
-1.71364 2.35788 1.69654 -0.466109 0.187912 0.864541
-0.683421 1.90268 1.66034 0.487734 -0.143737 0.861078
-0.691921 1.93681 1.67896 0.541018 -0.0979769 0.835285
-0.665468 1.7784 1.59596 0.25333 -0.325466 0.910986
-0.777474 1.86588 1.66362 0.193548 -0.354422 0.914836
-0.760504 1.98926 1.72163 0.547196 -0.130994 0.826691
-2.02085 2.40376 1.55349 -0.75841 0.328305 0.563054
-2.01258 2.34434 1.54671 -0.760025 0.0983369 0.642411
-1.90796 2.37862 1.59599 -0.438 0.205408 0.875193
-0.548139 1.81734 1.59228 0.675377 -0.159592 0.719997
-0.535623 1.73838 1.55826 0.69311 -0.406018 0.595607
-0.606162 1.84464 1.61228 0.472048 -0.103105 0.875523
-0.587175 1.78533 1.58508 0.54173 -0.297287 0.786225
-2.04559 2.4041 1.46362 -0.854467 0.492687 0.16476
-2.06381 2.32186 1.29657 -0.880713 0.315581 -0.353204
-2.03812 2.38223 1.51161 -0.846472 0.339774 0.409926
-2.0409 2.29894 1.40576 -0.962788 0.25996 0.0738949
-2.03867 2.42596 1.53459 -0.788141 0.454032 0.415558
-0.538691 1.70621 1.43227 0.930608 -0.361087 0.0598738
-0.546044 1.67247 1.31981 0.853941 -0.422274 -0.304088
-0.58386 1.66216 1.37013 0.879616 -0.4616 -0.114896
-0.542727 1.71299 1.52593 0.730137 -0.472746 0.493368
-0.530877 1.71937 1.48579 0.878784 -0.38322 0.284397
-1.86493 2.28648 1.10913 -0.521954 0.30754 -0.795603
-1.94545 2.2581 1.18236 -0.69713 0.23152 -0.678534
-1.95138 2.2395 1.19282 -0.725199 0.203653 -0.657732
-1.99829 2.26979 1.22693 -0.793072 0.243232 -0.558458
-0.727157 1.72468 1.15452 0.562338 -0.320039 -0.762464
-0.695291 1.80858 1.10726 0.603268 -0.123882 -0.787859
-0.653591 1.72732 1.18774 0.684809 -0.310782 -0.659129
-0.689626 1.69964 1.19244 0.634423 -0.376861 -0.674895
-0.643193 1.66788 1.2444 0.737809 -0.4396 -0.512239
-1.78604 2.26725 1.06681 -0.462082 0.259815 -0.847925
-1.76822 2.20881 1.06988 -0.482173 0.139191 -0.864948
-1.86309 2.23153 1.11755 -0.541898 0.200509 -0.816176
-0.710446 1.83244 1.08752 0.58366 -0.0930455 -0.80665
-0.854085 1.8785 1.01442 0.386845 -0.132213 -0.912617
-0.849492 1.83274 1.05584 0.423385 -0.236897 -0.874428
-0.692775 1.81975 1.10028 0.604278 -0.0985511 -0.790655
-1.40622 1.8508 0.660702 -0.389844 -0.476878 -0.787787
-1.49312 1.89828 0.66857 -0.777219 -0.335535 -0.532303
-1.49755 1.88776 0.679214 -0.775538 -0.27366 -0.568904
-1.34202 1.82688 0.652468 -0.131047 -0.619277 -0.774159
-1.28444 1.83781 0.610615 -0.068491 -0.911279 -0.406053
-1.22358 1.84414 0.612004 0.0304856 -0.949163 -0.313306
-1.40059 1.92516 0.506362 -0.535591 -0.795686 -0.282888
-1.36245 1.90022 0.435281 -0.427374 -0.853504 -0.298132
-1.38371 1.91999 0.424756 -0.489802 -0.824591 -0.283099
-1.42224 1.94692 0.360789 -0.464097 -0.858327 -0.218836
-1.42753 1.94775 0.453542 -0.545143 -0.802509 -0.242485
-1.30151 1.87361 0.522509 -0.256926 -0.920987 -0.292867
-1.32459 1.88976 0.367968 -0.331914 -0.896492 -0.293487
-1.23664 1.86512 0.552552 -0.0968295 -0.961581 -0.256878
-1.22371 1.86317 0.502281 -0.143855 -0.962059 -0.231837
-1.23878 1.86937 0.383296 -0.274293 -0.937228 -0.215329
-1.303 1.98373 0.186912 -0.242779 -0.575579 -0.780876
-1.3494 1.99115 0.229639 -0.328471 -0.658906 -0.67672
-1.36665 2.01427 0.188263 -0.287531 -0.558016 -0.778424
-1.39993 1.99017 0.276406 -0.410779 -0.746045 -0.524096
-1.45902 1.97519 0.364063 -0.498651 -0.84015 -0.213294
-1.2878 1.9102 0.301385 -0.317638 -0.851842 -0.416499
-1.3105 1.9588 0.225287 -0.287036 -0.684729 -0.669893
-1.31083 1.95075 0.23806 -0.298286 -0.717674 -0.629261
-1.18635 1.91186 0.238207 -0.203672 -0.738016 -0.643312
-1.19623 1.89959 0.27846 -0.231716 -0.824109 -0.516867
-1.29939 2.06163 0.154731 -0.0957498 -0.170144 -0.980756
-1.36728 2.13028 0.15872 -0.0534308 0.129996 -0.990074
-1.41617 2.1105 0.168469 -0.174531 -0.0815531 -0.981269
-1.42225 2.09146 0.172579 -0.224237 -0.220726 -0.949209
-1.22278 2.07041 0.153322 0.0647006 0.0459021 -0.996848
-1.15481 1.99132 0.168018 0.0328866 -0.230132 -0.972604
-1.21533 1.97307 0.169013 -0.133289 -0.475334 -0.86965
-1.50291 2.15086 0.178859 -0.397945 0.161955 -0.903001
-1.45079 2.10218 0.176943 -0.277476 -0.188231 -0.942113
-1.57407 2.16917 0.189573 -0.599991 0.271702 -0.752455
-1.12126 1.94778 0.181424 0.0149234 -0.4114 -0.911333
-1.08663 1.94954 0.181845 0.187631 -0.322751 -0.9277
-1.02655 1.83021 0.216318 0.239716 -0.81875 -0.521713
-1.58836 2.20002 0.214011 -0.728236 0.506203 -0.461986
-1.60714 2.1639 0.246914 -0.928696 0.268077 -0.25624
-1.61229 2.0712 0.269448 -0.839348 -0.415933 -0.349992
-0.975258 1.87906 0.221404 0.69051 -0.532835 -0.489165
-1.01373 1.83419 0.28062 0.411885 -0.858717 -0.304885
-0.981835 1.87298 0.289837 0.749721 -0.635736 -0.183736
-1.59602 2.21592 0.294981 -0.83085 0.549517 -0.0878587
-1.60046 2.21436 0.262976 -0.818563 0.560489 -0.125722
-1.59098 2.14821 0.36878 -0.991136 0.131467 -0.0191493
-1.59426 2.13135 0.353632 -0.998212 0.0380631 -0.0460841
-1.57069 2.07242 0.524741 -0.972212 -0.233668 0.0142338
-1.56347 2.0438 0.575532 -0.950382 -0.311055 -0.00430392
-1.57401 2.04258 0.517837 -0.921755 -0.387761 0.00312083
-0.971411 1.89641 0.340571 0.851604 -0.522131 -0.0463606
-0.967548 1.91714 0.415883 0.86921 -0.490401 0.0630943
-0.981608 1.90441 0.428305 0.798022 -0.597874 0.0755492
-0.974859 1.91876 0.453919 0.859156 -0.504831 0.083648
-0.947803 1.95033 0.461126 0.951634 -0.292891 0.0927786
-1.00626 1.90624 0.529783 0.813415 -0.57883 0.0575559
-1.4785 1.97967 0.440879 -0.616888 -0.767698 -0.173459
-1.56013 2.02719 0.411896 -0.806116 -0.590896 -0.0319168
-1.46472 1.97199 0.435354 -0.570774 -0.798225 -0.192497
-1.53807 2.02185 0.58861 -0.909446 -0.411135 -0.0622531
-1.54805 2.02078 0.49981 -0.849252 -0.524336 -0.0619896
-1.2009 1.857 0.501291 -0.10144 -0.973704 -0.203987
-1.21436 1.85968 0.550852 -0.0798717 -0.969207 -0.232934
-1.16297 1.84631 0.476 -0.0134021 -0.989604 -0.143194
-1.12228 1.84062 0.575728 0.280803 -0.957285 -0.0689523
-1.12667 1.83527 0.498522 0.133929 -0.986907 -0.0898746
-1.53063 2.04966 0.276713 -0.671415 -0.561794 -0.48331
-1.60619 2.06292 0.289289 -0.831979 -0.458525 -0.312356
-1.58922 2.05796 0.303461 -0.817627 -0.488714 -0.304376
-1.51657 2.03904 0.307162 -0.668885 -0.617496 -0.413874
-1.5257 2.02667 0.352181 -0.716058 -0.654006 -0.244001
-1.5506 2.03912 0.364494 -0.790797 -0.582153 -0.189045
-1.07288 1.83083 0.388802 0.198456 -0.97537 -0.0962781
-1.0523 1.8317 0.280804 0.193198 -0.905837 -0.377007
-1.12972 1.89357 0.232139 -0.0697281 -0.749102 -0.658774
-1.15576 1.86485 0.338289 -0.125434 -0.943074 -0.308021
-1.08821 1.83092 0.398775 0.145151 -0.98705 -0.0682897
-1.53859 2.0338 0.679259 -0.983449 -0.178151 -0.033024
-1.50429 2.00182 0.627409 -0.877685 -0.46038 -0.133114
-1.45517 1.95645 0.598762 -0.681776 -0.679091 -0.272061
-1.53386 2.04179 0.777126 -0.993248 0.113785 -0.0226139
-1.1204 1.85492 0.70855 0.582659 -0.81158 -0.0429748
-1.15503 1.85003 0.616445 0.233739 -0.963917 -0.127399
-1.18144 1.7917 0.724593 0.577385 -0.709515 -0.403998
-1.18534 1.7949 0.71527 0.538253 -0.738277 -0.406486
-1.54784 2.13508 0.657734 -0.983361 0.144852 0.109635
-1.55127 2.075 0.643324 -0.991805 -0.123517 0.0326462
-1.55728 2.167 0.581814 -0.953151 0.285556 0.0998039
-1.55547 2.08996 0.609366 -0.99774 -0.060162 0.0299089
-1.53689 2.0668 0.754843 -0.990927 0.133134 0.0184242
-1.54501 2.07508 0.691161 -0.999508 0.00122747 0.0313303
-1.0358 1.88728 0.580099 0.71458 -0.697936 0.0475473
-0.974871 1.93844 0.533763 0.910683 -0.399 0.107028
-0.974637 1.96728 0.671609 0.929626 -0.30871 0.201231
-0.955714 1.96967 0.592159 0.951917 -0.254679 0.170273
-1.07326 1.86334 0.644857 0.572007 -0.819483 0.0354266
-1.09387 1.86141 0.737196 0.712759 -0.701271 0.0138714
-1.0888 1.86117 0.711002 0.673125 -0.739296 0.0185393
-1.49031 2.11732 0.885748 -0.815865 0.572026 -0.0845581
-1.06901 1.96614 0.891046 0.968769 -0.235408 0.0779066
-1.5229 2.08145 0.803923 -0.939685 0.327634 -0.0982279
-1.52828 2.21221 0.731708 -0.83458 0.501944 0.227
-1.04141 1.92514 0.764156 0.918935 -0.392432 0.0394374
-1.07796 1.8913 0.78311 0.858878 -0.512113 -0.00824901
-1.04408 1.93452 0.787316 0.944351 -0.328902 0.00495594
-1.47753 2.10951 0.936628 -0.736035 0.531473 -0.419271
-1.0873 1.97987 0.954117 0.860991 -0.178832 -0.476145
-1.52721 2.17076 0.974967 -0.687224 0.39414 -0.610227
-1.5501 2.18669 0.978143 -0.656895 0.364051 -0.660269
-1.03738 1.97701 0.966969 0.823899 -0.222185 -0.521368
-1.05095 1.9861 0.961283 0.846502 -0.212392 -0.488184
-0.932981 1.9293 0.983571 0.561465 -0.156397 -0.812586
-2.00554 1.11705 1.10598 -0.694642 -0.539462 -0.475871
-1.93026 1.03589 1.10381 -0.600898 -0.628387 -0.494015
-1.98757 1.12467 1.07222 -0.678582 -0.500497 -0.537614
-1.92202 0.996423 1.14121 -0.576314 -0.698592 -0.424066
-1.96252 1.01691 1.17091 -0.618549 -0.696267 -0.364156
-1.86136 0.915967 1.15801 -0.479246 -0.784985 -0.392583
-1.92652 1.02383 1.11358 -0.592843 -0.649398 -0.476256
-1.86798 0.940373 1.13693 -0.498772 -0.750055 -0.434332
-1.97619 1.17353 0.996366 -0.656869 -0.378931 -0.65187
-1.86143 1.01286 1.03748 -0.490007 -0.636654 -0.595454
-1.8631 0.992316 1.06542 -0.494128 -0.671448 -0.552264
-1.86863 0.990322 1.07556 -0.504043 -0.676176 -0.537334
-1.82157 0.854306 1.17985 -0.404675 -0.846834 -0.345124
-1.83714 0.969748 1.05753 -0.447339 -0.699375 -0.557461
-1.86038 0.934072 1.13424 -0.485081 -0.757592 -0.436749
-1.90455 1.08355 1.00918 -0.558244 -0.525285 -0.642215
-1.56207 0.856119 1.15041 -0.0620595 -0.912055 -0.405345
-1.40273 0.902395 1.07327 0.179753 -0.831933 -0.524954
-1.48453 0.903196 1.06733 0.091602 -0.829422 -0.551061
-1.46621 0.874548 1.12145 0.0724499 -0.88977 -0.450622
-1.47761 0.846501 1.17284 0.0212668 -0.934088 -0.35641
-1.60736 0.867818 1.12624 -0.0998565 -0.885133 -0.454497
-1.44046 0.845364 1.17698 0.0605201 -0.936554 -0.345258
-1.78935 0.838907 1.16949 -0.352518 -0.864756 -0.357671
-1.70475 0.878843 1.09955 -0.233745 -0.841023 -0.487897
-1.69014 0.886258 1.08649 -0.211535 -0.833004 -0.511231
-1.6748 0.928926 1.0069 -0.184513 -0.75493 -0.629314
-1.68045 0.934815 0.995416 -0.192179 -0.741093 -0.643311
-1.69865 0.908084 1.04472 -0.222706 -0.789989 -0.571244
-1.64711 0.908359 1.04754 -0.144203 -0.803294 -0.577861
-1.73132 0.90525 1.04796 -0.270934 -0.784267 -0.558139
-1.61105 0.901573 1.06269 -0.0881452 -0.823189 -0.560884
-1.87067 1.29791 0.882157 -0.561003 -0.214356 -0.799579
-1.86194 1.40089 0.840214 -0.563618 -0.0671249 -0.823304
-1.9148 1.30974 0.900976 -0.612997 -0.191896 -0.766427
-1.85429 1.16567 0.921572 -0.504828 -0.406234 -0.761658
-1.92293 1.32424 0.89997 -0.62382 -0.170189 -0.762813
-1.86358 1.37597 0.850115 -0.563581 -0.10226 -0.819707
-1.95194 1.25884 0.938893 -0.642938 -0.25896 -0.720812
-1.87931 1.40397 0.848192 -0.583388 -0.0616066 -0.809854
-1.79618 1.15216 0.896046 -0.42536 -0.432267 -0.795119
-1.76863 1.06491 0.913275 -0.353886 -0.54782 -0.758062
-1.77288 1.27408 0.836447 -0.412104 -0.266855 -0.871182
-1.75345 1.12484 0.881509 -0.344249 -0.475704 -0.809443
-1.76815 1.12132 0.891614 -0.370085 -0.477748 -0.79674
-1.69131 1.25252 0.795942 -0.258994 -0.312775 -0.913835
-1.78644 1.28908 0.838848 -0.438577 -0.242025 -0.86549
-1.78796 1.21691 0.867151 -0.429372 -0.344093 -0.835009
-1.7598 1.36656 0.793534 -0.398905 -0.139115 -0.906378
-1.7031 1.28496 0.790664 -0.286306 -0.26599 -0.920477
-1.77205 1.19838 0.864686 -0.396559 -0.373665 -0.83852
-1.43072 0.987031 0.957128 0.19588 -0.683494 -0.703183
-1.6689 0.973961 0.939223 -0.169827 -0.675701 -0.717347
-1.52513 0.962266 0.962516 0.0485326 -0.710325 -0.702198
-1.51353 0.959093 0.965817 0.0658359 -0.713692 -0.697359
-1.48904 1.10403 0.876119 0.127929 -0.560021 -0.818542
-1.60434 1.03285 0.90879 -0.0649173 -0.630569 -0.773413
-1.37959 1.10095 0.890135 0.291386 -0.555732 -0.778625
-1.47155 1.05112 0.911772 0.146328 -0.619935 -0.770888
-1.31649 1.2014 0.833047 0.390225 -0.428544 -0.814908
-1.47464 1.02213 0.929914 0.136489 -0.651081 -0.746635
-1.60764 1.12719 0.842849 -0.0873377 -0.503214 -0.859737
-1.64831 1.13051 0.834461 -0.158099 -0.484422 -0.86043
-1.45898 1.14815 0.850235 0.174741 -0.503642 -0.846056
-1.61329 1.12563 0.843102 -0.0969243 -0.503603 -0.858481
-1.70183 0.99097 0.924593 -0.217517 -0.648878 -0.729139
-1.55321 1.24282 0.769663 -0.0166418 -0.350755 -0.936319
-1.61357 1.06714 0.884181 -0.0845211 -0.585104 -0.806542
-1.59213 1.24778 0.760386 -0.0843383 -0.333754 -0.93888
-1.47953 1.14373 0.850281 0.139183 -0.507818 -0.850147
-1.73928 1.4834 0.783484 -0.461629 -0.0320809 -0.886493
-1.69409 1.39786 0.771143 -0.341553 -0.143823 -0.928793
-1.70793 1.41211 0.775061 -0.36994 -0.121607 -0.921062
-1.72748 1.5693 0.778996 -0.509813 0.0458358 -0.859063
-1.67559 1.37648 0.765929 -0.300956 -0.175419 -0.937365
-1.75875 1.49075 0.789145 -0.487725 -0.0136512 -0.872891
-1.80607 1.42819 0.803848 -0.492396 -0.0482117 -0.869035
-1.71004 1.46448 0.77507 -0.414564 -0.0680314 -0.907474
-1.78444 1.53822 0.796176 -0.545232 0.0466004 -0.836989
-1.74234 1.37307 0.785677 -0.378512 -0.140035 -0.914942
-1.76926 1.53392 0.791743 -0.527863 0.0343216 -0.848636
-1.51488 1.58844 0.711454 -0.173688 -0.151809 -0.97303
-1.58592 1.59042 0.73574 -0.341573 -0.0398088 -0.939012
-1.59166 1.76324 0.735821 -0.483847 0.143392 -0.863325
-1.55671 1.57738 0.725888 -0.262385 -0.0993954 -0.959831
-1.57205 1.62137 0.730657 -0.335428 -0.0300974 -0.941585
-1.45017 1.7502 0.687547 -0.16102 -0.0901753 -0.982823
-1.6052 1.78684 0.740194 -0.523537 0.18483 -0.831713
-1.53531 1.72218 0.716988 -0.334408 0.0148945 -0.942311
-1.48126 1.72599 0.698452 -0.212692 -0.0667044 -0.97484
-1.46785 1.73256 0.693789 -0.187041 -0.080794 -0.979024
-1.34885 1.33352 0.788459 0.340394 -0.3609 -0.868264
-1.43655 1.41374 0.751971 0.187078 -0.312111 -0.931444
-1.29705 1.34613 0.796334 0.4228 -0.361451 -0.831019
-1.40488 1.34884 0.773338 0.244648 -0.345445 -0.905988
-1.37002 1.46164 0.754861 0.304589 -0.307141 -0.901604
-1.38411 1.30374 0.787928 0.280974 -0.36691 -0.886809
-1.56444 1.27886 0.756174 -0.0388711 -0.325947 -0.944588
-1.26493 1.51785 0.76386 0.473711 -0.29857 -0.828525
-1.57953 1.27015 0.755026 -0.0646418 -0.323635 -0.943971
-1.52937 1.33877 0.749798 0.0208183 -0.314697 -0.948964
-1.34694 1.38128 0.777968 0.343796 -0.34278 -0.874246
-1.31025 1.67462 0.714826 0.285383 -0.226351 -0.931301
-1.31029 1.62266 0.728411 0.339917 -0.249948 -0.906632
-1.43073 1.49002 0.734128 0.143275 -0.27808 -0.949812
-1.40009 1.72903 0.678965 -0.0246898 -0.167871 -0.9855
-1.54995 1.38157 0.733807 -0.0747411 -0.281801 -0.956557
-1.33888 1.54019 0.743109 0.347818 -0.280321 -0.894675
-1.57676 1.34586 0.736698 -0.109628 -0.287116 -0.951602
-1.52922 1.41102 0.731093 -0.0490477 -0.276367 -0.9598
-1.37668 1.49491 0.745858 0.291527 -0.292249 -0.910825
-1.44821 1.54612 0.715241 0.0331485 -0.242105 -0.969684
-1.4633 1.79579 0.691563 -0.342001 -0.0940674 -0.93498
-1.50477 1.79726 0.705727 -0.390443 0.00525873 -0.920612
-1.50292 1.85528 0.704005 -0.660295 -0.102154 -0.744027
-1.34292 1.72997 0.692489 0.144716 -0.246801 -0.9582
-1.32492 1.73702 0.694987 0.205045 -0.328861 -0.92185
-1.30957 1.78268 0.682948 0.134032 -0.55071 -0.823865
-1.56726 1.85968 0.726522 -0.72149 0.0547184 -0.690259
-1.55394 1.96981 0.7834 -0.895968 0.238546 -0.374615
-1.5546 1.97825 0.772385 -0.94109 0.181068 -0.285593
-1.20749 1.7173 0.733043 0.571376 -0.502016 -0.649238
-1.1101 1.87871 0.837062 0.878164 -0.437236 -0.194043
-2.04313 2.21194 1.27267 -0.902372 0.235518 -0.36091
-1.98211 2.19792 1.21312 -0.798519 0.210466 -0.563978
-2.10936 1.9804 1.10892 -0.669263 0.331092 -0.665181
-2.04793 2.19974 1.26503 -0.895007 0.242005 -0.374693
-1.99588 2.17371 1.20121 -0.784636 0.224548 -0.577862
-2.06801 2.07216 1.16228 -0.749577 0.290192 -0.594914
-2.05078 2.08058 1.15693 -0.731537 0.278001 -0.62255
-2.12033 2.05351 1.21826 -0.815623 0.3375 -0.46995
-2.17622 2.01709 1.28664 -0.850402 0.396239 -0.346138
-2.1343 2.08259 1.28464 -0.87388 0.343774 -0.343733
-2.11984 2.07347 1.24301 -0.842802 0.333378 -0.422545
-2.1931 2.01827 1.32301 -0.869972 0.407862 -0.277122
-2.15449 2.0825 1.3262 -0.894911 0.358718 -0.265434
-2.09564 2.11204 1.24285 -0.856362 0.302518 -0.418482
-2.13656 2.05204 1.24987 -0.839805 0.353502 -0.412024
-0.72311 1.47536 1.16783 0.740111 -0.338073 -0.581328
-0.680368 1.64303 1.23372 0.725567 -0.450757 -0.519973
-0.660095 1.57924 1.25342 0.786368 -0.459071 -0.413376
-0.75579 1.52985 1.13218 0.641011 -0.2959 -0.708201
-0.727702 1.57319 1.17009 0.676565 -0.355713 -0.64477
-0.737301 1.58939 1.15963 0.646401 -0.342753 -0.681679
-0.682709 1.44694 1.26678 0.839924 -0.381513 -0.385972
-0.732549 1.42374 1.15956 0.753172 -0.308145 -0.581187
-0.660537 1.42207 1.33671 0.88468 -0.390605 -0.254497
-0.659891 1.54702 1.25938 0.804721 -0.448085 -0.389415
-0.673637 1.46825 1.27551 0.8395 -0.400395 -0.367319
-0.73733 1.38208 1.17418 0.77772 -0.28599 -0.559787
-0.689398 1.31281 1.33513 0.912102 -0.312059 -0.265876
-0.665228 1.49977 1.27617 0.830459 -0.422688 -0.362867
-2.07197 1.08924 1.31303 -0.739079 -0.653794 -0.162221
-2.02142 1.01222 1.47033 -0.667102 -0.743453 0.0474684
-1.89048 0.888248 1.55768 -0.507815 -0.848079 0.151281
-2.02592 0.992627 1.56844 -0.635089 -0.750551 0.18258
-2.10209 1.07697 1.46583 -0.735978 -0.675046 0.051465
-1.93425 0.913171 1.59851 -0.535158 -0.817814 0.211629
-2.0533 1.076 1.30668 -0.724626 -0.666762 -0.174202
-1.9703 0.9407 1.60241 -0.568589 -0.792345 0.221127
-2.04512 1.02697 1.48713 -0.682645 -0.727 0.07393
-1.97895 0.9908 1.41903 -0.64217 -0.765934 -0.0310291
-2.01227 1.00488 1.47085 -0.658701 -0.750936 0.0469781
-2.10702 1.10697 1.35515 -0.762023 -0.639877 -0.0993908
-2.05414 1.09141 1.24419 -0.726318 -0.638327 -0.254955
-2.08294 1.08667 1.36065 -0.743024 -0.662336 -0.0960554
-1.97834 0.991958 1.41207 -0.643254 -0.764554 -0.0410022
-1.98428 0.976581 1.49713 -0.624138 -0.77719 0.080173
-1.84108 0.848657 1.34578 -0.439328 -0.888938 -0.129538
-1.87026 0.878293 1.40485 -0.489053 -0.870632 -0.0531744
-1.99083 1.02375 1.317 -0.669799 -0.722468 -0.171493
-1.84644 0.852851 1.37461 -0.449147 -0.888683 -0.0922454
-1.83427 0.840121 1.35543 -0.428412 -0.896029 -0.116598
-1.8289 0.825076 1.48275 -0.417579 -0.907203 0.0510933
-1.85409 0.867937 1.28457 -0.456532 -0.864957 -0.208394
-1.89171 0.903206 1.40306 -0.524272 -0.849693 -0.0562273
-1.85582 0.862096 1.3977 -0.465072 -0.883086 -0.0621811
-1.86215 0.859655 1.53837 -0.468251 -0.874767 0.124591
-1.87777 0.888167 1.38764 -0.501246 -0.861929 -0.0763638
-1.85585 0.868625 1.30411 -0.46108 -0.86808 -0.183963
-1.84911 0.867875 1.20256 -0.439004 -0.844658 -0.306313
-1.83773 0.854548 1.20503 -0.421431 -0.855027 -0.302199
-1.86887 0.880498 1.34992 -0.485336 -0.865235 -0.125767
-1.57736 0.803245 1.49218 -0.133364 -0.988413 0.0724898
-1.60941 0.814209 1.45706 -0.157997 -0.987258 0.0189446
-1.42 0.77342 1.53378 0.00727141 -0.989632 0.143442
-1.40526 0.7637 1.57542 0.0125971 -0.97983 0.199434
-1.45912 0.806923 1.38126 0.000666068 -0.997385 -0.0722708
-1.54681 0.800572 1.48327 -0.102354 -0.99276 0.0628559
-1.47131 0.774895 1.56518 -0.0457337 -0.982221 0.182071
-1.43678 0.792731 1.44143 0.00973278 -0.999844 0.0147094
-1.415 0.799714 1.38664 0.0403316 -0.997419 -0.0594016
-1.45823 0.798571 1.4261 -0.00724893 -0.999932 -0.00908748
-1.42293 0.818854 1.28842 0.0512567 -0.97959 -0.194359
-1.65342 0.799369 1.57177 -0.218408 -0.959875 0.175894
-1.38224 0.764039 1.55588 0.0369495 -0.983854 0.17512
-1.59569 0.795064 1.55086 -0.160628 -0.975113 0.152816
-1.66374 0.812023 1.51074 -0.219674 -0.971409 0.0900482
-1.41019 0.771205 1.53831 0.0153058 -0.988541 0.150177
-1.73815 0.818075 1.34274 -0.307329 -0.94204 -0.13457
-1.58796 0.826013 1.32237 -0.124574 -0.978484 -0.164471
-1.70622 0.817658 1.39133 -0.27035 -0.960097 -0.0715846
-1.70169 0.821103 1.31011 -0.26316 -0.9482 -0.177942
-1.53982 0.828118 1.32684 -0.0647923 -0.985206 -0.158656
-1.74064 0.822349 1.2323 -0.303565 -0.913184 -0.271925
-1.77698 0.810834 1.4785 -0.351936 -0.934917 0.0455075
-1.79155 0.818655 1.26443 -0.363055 -0.902923 -0.230046
-1.75136 0.809518 1.54216 -0.318657 -0.938983 0.129495
-1.80954 0.816298 1.30226 -0.385659 -0.904428 -0.182421
-1.77243 0.815449 1.36787 -0.347605 -0.932227 -0.100613
-1.71423 0.811623 1.53352 -0.275532 -0.953948 0.118594
-1.79547 0.818472 1.26435 -0.367324 -0.901241 -0.229865
-1.6396 0.825606 1.27096 -0.187094 -0.955246 -0.22913
-1.79335 0.807798 1.53532 -0.367024 -0.922463 0.119818
-1.90658 1.75135 2.04468 -0.355315 0.290607 0.888425
-1.75002 1.87606 2.01272 -0.1838 0.521376 0.833297
-1.81153 1.75488 2.04634 -0.259992 0.319418 0.91125
-1.46364 1.85147 2.02798 0.124998 0.521479 0.844059
-1.86619 1.83969 2.02005 -0.309762 0.439036 0.843383
-1.58779 1.86699 2.01995 -0.00721006 0.534615 0.845065
-1.66581 1.81484 2.03296 -0.0978075 0.445486 0.88993
-1.79046 1.77363 2.04146 -0.236874 0.354564 0.90453
-1.71519 1.8252 2.02854 -0.151381 0.452397 0.878875
-1.70956 1.8786 2.01312 -0.139634 0.533143 0.834422
-1.64517 1.86199 2.01979 -0.0706977 0.519954 0.851263
-1.75364 1.93576 1.9952 -0.179577 0.602655 0.777534
-1.64362 1.6383 2.0813 -0.103587 0.182083 0.977812
-1.69144 1.74426 2.05232 -0.134084 0.330416 0.934263
-1.71246 1.73854 2.05339 -0.157483 0.316938 0.93528
-1.63007 1.68494 2.06926 -0.0804841 0.255252 0.963519
-1.6395 1.61705 2.08699 -0.102999 0.151235 0.983117
-1.50938 1.65465 2.07976 0.0418264 0.23388 0.971365
-1.62499 1.57985 2.09712 -0.0942353 0.0994244 0.990573
-1.59846 1.66967 2.07395 -0.0497887 0.238942 0.969757
-1.66563 1.60761 2.08894 -0.131641 0.131561 0.982529
-1.76052 1.71415 2.05883 -0.212028 0.26865 0.939612
-1.61421 1.57911 2.09754 -0.0832391 0.100593 0.99144
-1.64531 1.64985 2.07821 -0.103289 0.199055 0.97453
-1.74989 1.67962 2.06818 -0.206889 0.219595 0.953402
-1.48331 1.79848 2.04231 0.0988894 0.445842 0.889632
-1.10691 1.63999 2.01197 0.488661 0.292815 0.821869
-1.11546 1.40188 2.05796 0.400836 -0.0506944 0.914746
-1.09783 1.3433 2.06496 0.39549 -0.127168 0.909624
-1.18735 1.55554 2.0452 0.371866 0.158155 0.914715
-1.09425 1.36727 2.05974 0.410624 -0.0942532 0.90692
-1.17394 1.50925 2.05085 0.37249 0.0925147 0.923414
-1.15842 1.61383 2.02808 0.423909 0.248462 0.870958
-1.04242 1.59937 2.00539 0.549365 0.244521 0.799004
-1.17623 1.72053 2.01219 0.425115 0.392377 0.81567
-1.30513 1.7668 2.0318 0.281441 0.432149 0.85676
-1.21824 1.72149 2.0212 0.376738 0.387945 0.84117
-1.23688 1.41511 2.07958 0.27582 -0.0564856 0.959548
-1.39193 1.71346 2.05833 0.178092 0.342485 0.922489
-1.24216 1.56208 2.05535 0.310236 0.156683 0.937659
-1.37819 1.818 2.03771 0.207747 0.481516 0.851459
-1.42738 1.70713 2.06628 0.138858 0.325067 0.935441
-1.36855 1.75251 2.0471 0.209267 0.400653 0.892012
-1.29235 1.52428 2.07156 0.246684 0.0900091 0.964907
-1.24044 1.53274 2.06006 0.305074 0.113572 0.945532
-1.34599 1.45162 2.09442 0.169453 -0.0265355 0.985181
-1.2735 1.41311 2.08701 0.236227 -0.0664285 0.969425
-1.30499 1.43506 2.08933 0.208911 -0.041838 0.977039
-1.30306 1.60069 2.0605 0.252891 0.200774 0.946433
-1.28692 1.59072 2.05909 0.26829 0.189581 0.9445
-1.40094 1.55191 2.08783 0.134968 0.106691 0.985089
-1.6143 1.54223 2.10198 -0.0903704 0.0482013 0.994741
-1.88953 1.54987 2.04824 -0.38189 0.00715469 0.92418
-1.97591 1.56316 2.03282 -0.464238 0.00925052 0.885662
-1.65643 1.54142 2.09349 -0.13543 0.0395353 0.989998
-1.94008 1.57634 2.04168 -0.425672 0.034615 0.904215
-1.54243 1.52271 2.1137 -0.0197844 0.0341477 0.999221
-1.88802 1.66716 2.06404 -0.34484 0.16854 0.923406
-1.94197 1.50094 2.03135 -0.446297 -0.0720524 0.89198
-1.94524 1.45885 2.02514 -0.45765 -0.131839 0.879304
-1.63113 1.50865 2.0942 -0.116121 -0.00151981 0.993234
-1.97596 1.53913 2.02963 -0.470362 -0.0244242 0.882135
-1.81418 1.52229 2.05959 -0.310244 -0.0175503 0.950495
-1.67536 1.38555 2.07104 -0.180416 -0.164145 0.969797
-1.97911 1.3646 2.00713 -0.49707 -0.252931 0.830028
-1.76212 1.34721 2.04915 -0.279404 -0.231429 0.931866
-1.73032 1.24317 2.0439 -0.250616 -0.344789 0.904606
-1.77397 1.35921 2.0481 -0.291373 -0.219849 0.931004
-1.64194 1.45001 2.08506 -0.136681 -0.0779343 0.987545
-1.65959 1.24241 2.05815 -0.173894 -0.328835 0.928239
-1.88689 1.42519 2.03263 -0.40492 -0.165713 0.89921
-1.78092 1.16218 2.02455 -0.304498 -0.441408 0.844062
-1.84338 1.31058 2.02857 -0.367269 -0.291367 0.8833
-1.73205 1.18262 2.03675 -0.254018 -0.411154 0.875458
-1.68691 1.27793 2.05661 -0.201704 -0.294941 0.933984
-1.81038 1.22555 2.0257 -0.334882 -0.38005 0.862216
-1.94643 1.39039 2.01665 -0.465864 -0.218093 0.857558
-2.00008 1.38281 2.00493 -0.515363 -0.235613 0.823946
-1.62295 1.39328 2.08253 -0.121402 -0.141253 0.982501
-1.81897 1.42707 2.0466 -0.333909 -0.148634 0.930813
-1.14023 1.35166 2.0693 0.357227 -0.124924 0.925626
-1.22 1.16538 2.02885 0.250365 -0.407774 0.878088
-1.23269 1.30711 2.06178 0.263859 -0.21068 0.941272
-1.18671 1.20491 2.03695 0.29181 -0.345206 0.892009
-1.28518 1.20987 2.04098 0.19331 -0.362403 0.911754
-1.31219 1.35553 2.07524 0.190335 -0.157996 0.968922
-1.29319 1.41642 2.08867 0.216941 -0.0657554 0.973968
-1.25693 1.40328 2.08458 0.251367 -0.076967 0.964827
-1.25216 1.13 2.02166 0.209826 -0.462036 0.861682
-1.32956 1.26439 2.05481 0.157509 -0.294864 0.942468
-1.4409 1.46871 2.10502 0.0740507 -0.0210832 0.997032
-1.20585 1.33468 2.06732 0.293849 -0.164403 0.941607
-1.42628 1.10201 2.02328 0.0380119 -0.503047 0.863423
-1.58279 1.23379 2.05935 -0.0976101 -0.336154 0.936735
-1.5518 1.42865 2.10056 -0.0403248 -0.0809859 0.995899
-1.52074 1.29561 2.07001 -0.0285801 -0.257918 0.965744
-1.39537 1.3069 2.06669 0.0965606 -0.244706 0.964777
-1.65927 1.12182 2.03838 -0.182079 -0.466559 0.865546
-1.29899 1.0934 2.01551 0.158253 -0.509959 0.845517
-1.49199 1.35114 2.08083 0.00720321 -0.184603 0.982787
-1.66643 1.15115 2.04513 -0.186119 -0.431728 0.882593
-1.49648 1.4685 2.10672 0.017827 -0.030688 0.99937
-1.31514 1.14914 2.02846 0.152314 -0.445631 0.882164
-1.44633 1.24886 2.05634 0.0387421 -0.321265 0.946196
-1.44197 1.24601 2.05552 0.0426782 -0.325033 0.944739
-1.60842 1.28635 2.07204 -0.115436 -0.266478 0.956903
-1.35871 1.12789 2.02582 0.107198 -0.472394 0.874844
-1.38781 1.16818 2.03598 0.0850789 -0.42423 0.901549
-1.63079 1.18304 2.05046 -0.149661 -0.39661 0.905705
-2.10744 1.23853 1.76855 -0.707213 -0.481779 0.517436
-1.9267 1.28015 1.99796 -0.45512 -0.343818 0.821374
-2.03257 1.11253 1.71977 -0.642655 -0.627363 0.439784
-2.09365 1.18015 1.72427 -0.701025 -0.555027 0.447782
-2.04767 1.18952 1.78139 -0.651234 -0.53273 0.540457
-2.04534 1.33835 1.93324 -0.591137 -0.314008 0.742938
-1.89346 1.14775 1.89953 -0.464246 -0.528993 0.710382
-2.08578 1.25593 1.80851 -0.678695 -0.451484 0.579254
-1.75697 1.11614 2.00947 -0.285407 -0.492223 0.82235
-2.00426 1.15278 1.78956 -0.607513 -0.569754 0.553452
-2.02805 1.21616 1.8285 -0.621125 -0.488842 0.612567
-1.92946 1.24106 1.95585 -0.477781 -0.405282 0.779405
-2.03587 1.18072 1.78481 -0.639378 -0.541327 0.546041
-2.0229 1.13651 1.75388 -0.631142 -0.596203 0.496188
-1.79378 1.1342 1.9894 -0.329656 -0.489238 0.807449
-1.90937 1.15821 1.89351 -0.482757 -0.521683 0.703415
-1.73385 1.08774 2.00497 -0.2634 -0.519441 0.812897
-1.87559 1.10667 1.87684 -0.452257 -0.580515 0.677101
-2.05443 1.22291 1.8079 -0.651321 -0.488345 0.580775
-1.99946 1.25228 1.89445 -0.570411 -0.423171 0.703958
-1.92893 1.12648 1.84136 -0.518557 -0.577868 0.630212
-1.89569 0.95766 1.73923 -0.480813 -0.762928 0.432156
-1.95603 0.979483 1.69441 -0.547803 -0.751678 0.367277
-1.959 1.07108 1.76157 -0.561397 -0.659642 0.499706
-1.88889 0.880153 1.68676 -0.460988 -0.825228 0.326326
-1.84088 1.08814 1.89511 -0.409461 -0.588127 0.697459
-1.94566 1.01429 1.73166 -0.54229 -0.717713 0.436818
-1.82719 1.05176 1.8812 -0.395682 -0.628998 0.669176
-1.96149 0.985369 1.69335 -0.554326 -0.746929 0.367179
-1.9608 1.08795 1.77266 -0.563789 -0.640515 0.521423
-1.75164 1.05571 1.96128 -0.293153 -0.576584 0.762635
-1.92671 0.984156 1.7279 -0.5181 -0.743827 0.42225
-1.93333 1.05807 1.77779 -0.53111 -0.667391 0.522027
-2.09961 1.08977 1.63249 -0.698273 -0.653505 0.292141
-1.83794 0.986313 1.82008 -0.413666 -0.714722 0.563962
-1.93945 0.980516 1.71211 -0.531089 -0.749093 0.395986
-1.90632 0.999689 1.76059 -0.496881 -0.723947 0.47855
-1.9299 0.957022 1.70384 -0.517298 -0.768767 0.376033
-2.16224 1.10245 1.57833 -0.743253 -0.635816 0.20812
-1.63085 1.05584 1.99707 -0.165455 -0.560512 0.81145
-1.56344 1.07056 2.01972 -0.0976381 -0.534642 0.839419
-1.57057 0.988145 1.9018 -0.122762 -0.69429 0.709148
-1.40065 0.946579 1.84651 0.0436095 -0.768924 0.637851
-1.30898 0.876332 1.74836 0.125162 -0.867018 0.4823
-1.48243 0.885784 1.75768 -0.0493159 -0.865169 0.49905
-1.36526 1.02854 1.96447 0.088195 -0.612572 0.785479
-1.35616 0.927135 1.81981 0.0860798 -0.797854 0.596674
-1.41748 0.879847 1.75076 0.0163483 -0.872185 0.488903
-1.35763 1.0017 1.92632 0.0933845 -0.664106 0.741783
-1.46085 0.971587 1.88079 -0.0142883 -0.726924 0.686569
-1.3938 1.01627 1.94626 0.0591578 -0.63874 0.767145
-1.54463 1.04413 1.98242 -0.0853127 -0.587136 0.80498
-1.56603 1.00709 1.92898 -0.114299 -0.658684 0.743688
-1.36847 0.993789 1.91475 0.081903 -0.68022 0.728418
-1.51907 0.951085 1.85009 -0.0772372 -0.763305 0.641404
-1.35473 0.826499 1.67605 0.0704214 -0.928335 0.365013
-1.31669 0.896546 1.77706 0.121026 -0.840248 0.528523
-1.49502 0.958985 1.86196 -0.0512823 -0.749902 0.659558
-1.41173 0.901174 1.78137 0.0255182 -0.842292 0.538418
-1.39934 0.875597 1.74513 0.034182 -0.876807 0.479625
-1.42805 0.815822 1.66256 -0.00411413 -0.94052 0.339714
-1.67138 1.03518 1.96986 -0.209616 -0.594753 0.776099
-1.43671 0.798961 1.64261 -0.015243 -0.952753 0.303363
-1.52142 0.795263 1.64936 -0.0995236 -0.948421 0.300985
-1.62174 0.926099 1.82663 -0.186081 -0.787586 0.587437
-1.65437 0.977995 1.89598 -0.208213 -0.697993 0.685167
-1.7681 0.83347 1.73033 -0.333171 -0.86011 0.386275
-1.68469 1.01428 1.94547 -0.22813 -0.628712 0.743423
-1.41426 0.778472 1.61395 0.00374064 -0.966359 0.257169
-1.62225 0.912465 1.80963 -0.18872 -0.807122 0.559409
-1.45427 0.768912 1.60735 -0.0364027 -0.970134 0.239821
-1.72097 0.838097 1.72979 -0.290495 -0.870255 0.397829
-1.48798 0.842984 1.70461 -0.060961 -0.91245 0.404621
-1.6097 0.854925 1.73591 -0.182755 -0.881339 0.435708
-1.56831 0.810258 1.67443 -0.144763 -0.930642 0.33608
-1.56863 0.847636 1.72127 -0.142284 -0.896858 0.41881
-1.51104 0.85087 1.71758 -0.0835048 -0.902012 0.423558
-1.38687 0.759883 1.587 0.0270482 -0.976109 0.21559
-1.99374 2.28886 1.54879 -0.682356 0.0699614 0.727665
-1.94119 2.2149 1.57549 -0.42327 0.228461 0.876726
-1.9737 2.18865 1.55938 -0.514384 0.359699 0.778477
-0.651247 1.70398 1.56731 0.474562 -0.350761 0.807315
-0.753171 1.6136 1.57964 0.611847 0.060878 0.78863
-0.772476 1.61141 1.58797 0.574386 0.124983 0.808987
-2.09788 2.06485 1.63499 -0.529233 0.602957 0.596954
-2.06323 2.06073 1.62959 -0.443292 0.613881 0.653178
-2.03404 1.96576 1.73564 -0.41869 0.582294 0.696873
-2.01933 1.98827 1.70783 -0.39296 0.580978 0.712774
-1.9833 2.04563 1.63707 -0.327567 0.576209 0.748788
-2.04899 1.91224 1.80034 -0.456964 0.572594 0.680676
-2.06807 1.96456 1.73944 -0.455646 0.600856 0.65678
-0.73661 1.53639 1.60836 0.724936 0.0661159 0.685636
-0.741849 1.5874 1.57556 0.690347 0.0441063 0.722133
-0.791484 1.52727 1.64596 0.657146 0.157282 0.737171
-0.761292 1.46604 1.67519 0.737376 0.120897 0.664576
-0.804383 1.49378 1.68542 0.679054 0.133943 0.721765
-0.738678 1.43098 1.68767 0.782726 0.099878 0.6143
-0.747078 1.45494 1.67351 0.75724 0.115083 0.642918
-2.20648 1.8931 1.72722 -0.677981 0.493815 0.544508
-2.19495 1.8953 1.7336 -0.661754 0.504083 0.55496
-2.16265 1.94672 1.72758 -0.580188 0.588273 0.563309
-2.18142 1.85948 1.76135 -0.668767 0.464467 0.580535
-2.13006 1.8302 1.80935 -0.610658 0.45741 0.646431
-2.16552 1.83152 1.78638 -0.665156 0.436447 0.605873
-2.14865 1.75937 1.83133 -0.64844 0.353112 0.674417
-2.14912 1.7373 1.84153 -0.650405 0.323302 0.68735
-0.764366 1.35167 1.74726 0.810563 0.00544452 0.585626
-0.728406 1.33393 1.71618 0.836396 -0.0260021 0.547509
-0.765484 1.24614 1.73719 0.813969 -0.201817 0.544724
-0.852166 1.31521 1.81482 0.755392 -0.0736759 0.651118
-0.889034 1.25126 1.83499 0.711496 -0.177429 0.679921
-0.887517 1.33358 1.84392 0.717093 -0.0281039 0.69641
-0.867972 1.28748 1.82343 0.737815 -0.118823 0.664462
-2.28959 1.71382 1.72463 -0.861198 0.212339 0.461791
-2.25413 1.66428 1.76779 -0.824917 0.174318 0.537704
-2.29216 1.71911 1.72133 -0.863031 0.216943 0.456195
-2.27258 1.63289 1.75139 -0.857758 0.12662 0.498216
-2.29273 1.69621 1.72315 -0.869855 0.190138 0.455192
-2.22283 1.53999 1.81915 -0.793995 -0.0237814 0.607459
-2.20842 1.54957 1.83336 -0.770726 -0.00165971 0.637164
-2.24291 1.47291 1.80802 -0.814941 -0.158112 0.557559
-2.22107 1.51847 1.82455 -0.789858 -0.0656753 0.609763
-2.17183 1.6459 1.85782 -0.69268 0.192081 0.695197
